0.0 0.0 74.0
-27.825297022936866 -83.41300129145384 72.0
-22.57046656793682 -92.20064428448677 72.0
-7.211606807250064 -93.11541379056871 73.0
4.400248621648643 -104.4095305306837 74.0
5.682106783322524 -130.9262761278078 74.0
-8.835146150900982 -147.60659232828766 72.0
-41.926339080091566 -147.264005811885 70.0
-61.96599002269795 -169.04883095715195 69.0
-59.77469161519548 -500.6221380671486 54.0
93.72193891822826 -733.5055494960397 66.0
231.3788119397359 -803.2230852246284 70.0
370.4139224148821 -830.6571628665552 71.0
441.567877318128 -822.3591632992029 71.0
539.7406552020693 -783.46365764644 68.0
839.2714813846396 -578.4480720795691 41.0
857.1992811380187 -574.8600677689537 39.0
1358.5718947190326 -555.5062273899093 33.0
1358.6365030908491 -572.4670796263963 33.0
1369.916286048363 -578.887126557529 33.0
1384.5953498769086 -569.9061656780541 34.0
1387.1344066492748 -555.5059764906764 35.0
1388.4060035692528 -532.4706212496385 35.0
1405.044210654567 -520.2698995471001 37.0
1435.734653549618 -521.1810655929148 41.0
1503.3066945500905 -434.5303514357656 56.0
1508.4822993753478 -414.9707624465227 57.0
863.8455722606741 -577.0364219658077 38.0
1529.2216003864305 -401.79068297706544 60.0
1537.5388661571778 -398.8504259167239 60.0
1544.811087348382 -389.98470417037606 60.0
1544.513880066108 -355.96605861838907 59.0
1537.8035177321872 -329.9054837562144 58.0
1529.2781404564157 -321.6008905470371 58.0
1519.9748548667412 -321.3160571474582 57.0
1470.1073198431404 -329.2351077273488 51.0
1442.2537129234988 -320.9563102321699 43.0
1417.2283652904443 -311.8244033008814 39.99999999999999
877.1328214647947 -571.55197064206 36.0
1408.981596798636 -311.97433978971094 39.99999999999999
936.7845633258112 -551.1314160833135 30.0
1086.3663686515065 -544.7517840657383 27.0
1129.697844600887 -533.1975204022601 27.0
1153.8392486501252 -537.34608752653 28.0
1166.9580271494342 -546.8530962150544 27.0
1351.9179551498964 -547.9566939584911 33.0
1395.6615804254543 -317.6068183006719 39.0
1373.3992038583383 -325.51528370939195 38.0
1228.52049309446 -325.71259118430316 33.0
1220.9679315240355 -313.90028470475227 33.0
1236.568925057305 -243.08956362120807 34.0
1247.349046745454 -132.9362519895658 30.0
1275.031371306628 30.71818721294403 28.0
1323.7054085182026 169.28403092734516 27.0
1348.452170718112 252.57447846699506 25.0
1360.8146292291349 297.15912902727723 25.0
1433.1792697195197 475.3439778024331 23.0
1494.214544070419 577.7904201587662 22.0
1532.3438459930476 698.4826164059341 20.0
1525.2337618166348 781.9291849154979 19.0
1514.9831516935956 825.5504225147888 18.0
1508.6972591130761 899.2544155875221 14.0
1502.4997525670333 994.3439813787118 8.0
1520.6372933236416 1006.1279593808576 7.0
1578.993156489567 974.4284102488309 9.0
1663.7133958183695 989.7941810963675 11.0
1737.232660431997 1078.7419635690749 15.0
1793.2073283365462 1128.547390111722 17.0
1829.6191236837767 1151.2698413515463 18.0
1951.0093199227704 1168.0865509845316 25.0
2149.4647118276916 1123.1748562911525 26.0
2249.0042278321926 1110.676942520775 23.0
2454.261617796845 1021.787354035303 27.0
2534.7408480469603 908.349356437102 32.0
2551.748857771512 872.9123360672966 33.0
2570.1534945113817 861.3571386327967 34.0
2667.0943378217053 839.5058794682845 49.00000000000001
2679.4280602420913 824.8174300445244 52.0
2678.8598014017334 784.6542327413335 58.0
2696.1725273858756 764.6307851132005 64.0
2752.2769162862096 786.7383481236175 74.0
2766.772262583254 822.1045632269233 75.0
2773.9256944231456 858.0953065790236 74.0
2795.833201889065 877.826213862747 74.0
3058.423855553963 887.452611496672 70.0
3139.475255900994 948.5596938161179 75.0
3222.13294311543 1151.1718262638897 86.0
3261.818645301508 1201.7879034876823 85.0
3312.0200242056744 1231.0118754282594 82.0
3395.867870307644 1263.0618594717234 82.0
3444.681463049026 1252.6505996715277 81.0
3466.3529530311935 1221.881082892418 78.0
3478.86492581747 1184.5312370210886 79.0
3477.608808818157 1128.204623776488 83.0
3475.5158108397154 1089.385573158972 87.0
3477.643031610991 1068.606138182804 89.0
3490.8185250167735 1053.314970887266 90.0
3536.7271550140576 1035.8195305773988 84.0
3550.169207621715 1014.098952209577 81.0
3546.475481887581 983.3117507109419 81.0
3559.5127357422607 965.3859829986468 78.0
3610.6856482767034 962.9099651006982 78.0
3631.4502551830374 980.2052077176049 79.0
3856.0221273550997 1672.2647063257173 97.0
3921.97645733878 1972.4598132204264 92.0
3944.3792574711842 2068.611430731602 94.0
3982.536584527348 2271.358140129596 89.0
3967.643796864664 2286.7570781791583 91.0
3833.926814091159 2285.480312424712 98.00000000000001
3630.9850256311474 2285.2238751016557 95.0
3537.287262743921 2306.529772677459 94.0
3511.636896621785 2302.374393654987 94.0
3464.4147082668496 2285.5242916662246 92.0
3369.6254417443415 2284.549891261384 91.0
3341.571931214421 2304.0941023407504 92.0
3289.5757962840144 2443.638667650521 90.0
3272.842914973502 2489.3128449209034 85.0
3254.941302158986 2499.8483326705173 84.0
3129.201501858188 2443.1770497402176 69.0
3000.0715433204314 2338.164516909048 53.0
2872.7159341633087 2277.434866344556 41.0
2696.3541195829166 2231.2916842848063 39.99999999999999
2449.7877276148647 2260.309408533387 19.0
2434.3944163200213 2264.6896341880783 18.0
2423.45723996812 2258.1690618284047 17.0
2410.4305208866717 2189.307509447448 20.0
2408.3066178116715 2160.887007182464 23.0
2409.9191076436546 2048.9585652360693 33.0
2398.7435857359087 2035.7307004481554 33.0
2297.440134521341 2036.0447672316805 26.0
2225.8678598606493 2053.6843691924587 27.0
2172.64517814212 2081.084820922464 26.0
2155.720219479874 2074.50162378978 26.0
2146.5464942327235 2047.7980194892734 26.0
2136.9565008936916 2031.7039287937805 27.0
2126.6931953561725 2032.3989223213866 27.0
2118.7036145660095 2027.4823768632486 27.0
2117.834356266656 1994.5028506554663 27.0
2105.3545580854407 1980.1056833853945 28.0
2086.2846299650846 1977.9409958394244 28.0
2070.9869157864014 1962.5866935290396 28.0
2068.059376816731 1938.1051185745746 28.0
2071.1945891994983 1733.939085477963 31.0
2052.4496461279923 1710.7247585402802 32.0
2012.4909726217156 1711.3577698618174 30.0
1992.3351582846371 1710.8147589145228 29.0
1967.8503775487188 1707.2277294090018 28.0
1932.8991525812307 1733.668158438988 24.0
1930.5186867722077 1860.9278012923896 9.999999999999998
1916.5686776291113 1864.6851322436705 9.0
1898.2883224708494 1842.6086154356599 8.0
1886.3941334661795 1823.265148925595 7.0
1767.1061898459448 1623.050426037982 7.0
1616.3863666830584 1484.4391629798338 8.0
1549.7855435172096 1453.2697717277333 9.0
1483.071278155432 1431.2525746496394 8.0
1403.2140293426346 1410.1241825157776 8.0
1323.7265264943708 1401.141554987058 15.0
1222.3718315950828 1401.0116542028263 23.0
940.4516731621698 1397.161356523633 26.0
606.9821965402225 1245.7022880529985 22.0
115.80446201004088 799.4614177439362 30.0
59.77064038813114 702.853597253561 25.0
73.63466230151244 602.1846801545471 31.0
106.12859222001862 531.542897965759 39.0
96.10445661237463 315.7528868811205 55.0
16.962968677515164 133.3887943951413 75.0
-19.241385257337242 45.121137608774006 74.0
-12.438144174579065 21.643768357113004 74.0
-3.961972696997691 16.003819110803306 74.0
